# 3D point list with one line of data per point:
#   POINT3D_ID, X, Y, Z, R, G, B, ERROR, TRACK[] as (IMAGE_ID, POINT2D_IDX)
# Number of points: 369, mean track length: 4.9947519315807378
4973 0.011618598981526475 0.85942747335856118 3.885061529944466 119 80 12 0.059213609851810171 99 757 85 1855
4253 1.0503375281575651 0.90744085017909681 8.0257284172308392 85 54 37 0.60980562239078107 30 2648 49 3344
7522 0.74763148971958349 0.074478313039035904 4.2605351332207322 134 82 8 0.16405224805431232 32 2453 48 1919 2 1961
4254 -0.1669053398427417 0.78305692233905044 4.0270173632356885 255 226 62 1.1631409849575247 56 3248 85 2809
4255 -0.056296522820440363 0.74029615200343313 3.4237214891826881 113 125 153 0.39778038108416919 56 3315 49 3362 27 2720 62 2854
5484 1.1768235130645472 0.16448980940069918 3.6794274734014545 127 108 27 1.0591201683270346 85 80 90 132 14 282
4256 0.88106941744751333 1.2001915985087388 9.0919750170008875 155 137 103 0.2285305387762139 93 2345 49 3383
4913 -0.71449546418649079 1.9656062848839033 3.8091424275338865 133 135 129 0.30573117834263874 99 841 85 1565
4257 0.97802637764027001 1.6484456021821174 9.9784231113413853 233 216 181 2.8029618532295233 57 2937 49 3446
5430 1.2695547226943624 0.81394603758569017 5.5604533742626989 100 89 68 0.19897034203434683 49 1370 85 1247 97 1831 18 1263 57 1909 30 1155 38 1109 93 1141 99 1258 90 1270 14 1311
4258 0.68020494930062536 0.92083233955976651 4.2569713174299775 86 59 10 0.21310892984724913 57 2208 49 3458 99 2969
7645 -0.72195442687703648 1.4087706623150384 3.6353888257447822 93 110 144 0.74181019635912271 48 222 79 215 2 242 60 249 72 190 29 231 1 193 65 365 33 197 21 236 53 230 5 364 35 1392 15 810 9 229
5939 -0.77120686658469328 2.0960498708694861 4.0051675333418242 123 127 118 2.2271512685224506 97 3090 31 2848
5591 0.6122525147175264 0.95380085964737016 5.3218321197446841 120 100 73 0.22500603134039313 90 1222 14 1445 81 2682
4917 0.48264444944079116 1.7218559469163162 4.1341337214360996 3 3 5 1.2952077616434905 99 1629 85 1606 90 1541 14 1685 16 980
4261 1.3765465519036633 1.0634987586582567 5.0733212238102459 235 220 182 0.10185781840788011 56 2610 49 3489
5076 0.88796107701801841 0.048262183584821788 3.7373053371078018 8 8 10 0.29845226739105357 99 2034 85 2654 90 2878 14 2130 83 1530 64 1486 12 2274
4262 -0.47378455092050209 1.3428228729762677 3.7118140194273583 45 33 8 0.45255416789038067 56 2774 49 3492 17 1983
7991 -0.85557346080421848 0.99589815713985297 3.8543821739686948 122 106 32 1.1758045126163756 79 2535 2 1838 1 1731 29 1684 33 1695 9 1894
4263 1.5206587494677317 1.0931764558728263 5.0440859076535052 142 126 97 0.20530024079805675 93 3046 49 3499 85 3264 99 2889 14 3129 90 2638 81 1512 45 1291 64 1292
8150 0.86640871996867141 -0.43964738610328674 4.4404501667532275 167 97 14 0.49722107576237939 17 1650 62 1514 27 717
5428 -0.39046278775922783 1.8682412063585783 3.6706085829211053 1 1 2 1.6485966124734153 99 367 85 393 90 409 56 426 30 782 49 485 18 246 57 396 93 375 14 515 81 189 89 811 96 895 41 1083 84 716 40 679 100 692 58 292 20 771
4264 0.84299199570764927 0.79961737668678035 4.2866291065202384 108 87 22 1.5748442634877715 30 2500 56 3261 14 2786 32 2574
7643 0.84196900445702216 1.6667701210899883 4.2296271196293684 206 193 161 0.41511365724392224 32 259 79 211 2 526 72 507
4265 0.56803665129139658 1.1537206454487898 4.0958509817663957 91 67 15 0.91129206427073195 56 2693 49 3509 99 3025
5080 -0.44457200176724332 0.35848973747506641 3.636945987985098 0 1 0 1.4847819175773449 99 717 85 2675 81 1802 52 1610
4266 0.86131686170819799 1.7139799885315075 3.6132805056623849 84 85 80 1.2979543515643615 18 3244 49 3510
5947 1.4329648092041194 -0.099185360652301088 4.5091816313118578 177 114 29 0.66906165846245658 56 91 17 48 62 43 27 51 89 55 96 60 41 68
6106 0.40318225014543552 0.46375923448008638 4.3203912235415469 116 75 13 0.45838840541073927 49 3283 17 2363 27 1629 62 1612
4268 -0.54562358256180055 1.5906591113598456 3.6081066851584547 46 46 42 1.4877211879739334 49 1512 97 2951 18 1944 93 252 85 231 99 512 90 703 14 324
4925 0.069987081565880696 1.8384685187793108 3.8944061597934279 4 4 5 0.31103232983926826 99 1651 85 1626 90 1525 14 1650
4269 -0.42327771701555511 1.034375928936744 3.3863293538573505 4 4 6 1.3614187591962765 30 1060 38 1055 49 2034 56 2094 57 1877 99 1875 85 1859 90 1769 14 956 17 2559 81 991 27 2215 62 2460 24 1182 51 956 83 1307 45 934 89 2086 96 2172 41 1786
7474 -1.0074890814099819 2.0501741610153816 2.2835831021681705 5 6 9 3.3047424379000994 51 2419 48 1518
5084 0.97330392980277014 0.16680063086188721 3.9497580388133171 101 77 17 1.4316692011699397 49 3244 99 1776 85 2708 89 2925 96 3390
4271 -0.33816649944216126 2.0173540103795569 3.5690228254671523 105 111 108 1.5077825254480579 57 233 30 498 38 206 93 354 49 467 97 3092 18 2969 42 1608 56 952 99 324 99 1941 85 547 90 545 31 2134 17 655 81 263 68 1585 79 1257 62 1470 27 400 24 482 83 444 59 543
5436 -0.46568144151568913 0.54560657158825032 3.413922257057409 184 131 26 0.54693372471578239 97 1745 18 889 98 776 57 2072 49 1902 56 1883 31 849 17 1798 68 1628 62 1780 27 2061 59 2667 89 2130 96 2037 41 2000 19 2508 25 2545 94 3096 70 1977
4272 0.21852999001352641 1.889792396605755 3.8208077435761596 37 27 25 1.5555350409651543 97 1597 56 1091 18 2299 42 2333 98 1527 57 2448 49 470 97 117 18 104 98 199 57 387 30 349 38 360 93 518 99 793 85 550 90 554 14 470 17 461 81 1704 32 115 79 173 62 275 27 238 27 1538 24 1502 12 875 52 747 3 1261 59 239 89 186 96 354 19 491 25 331 94 321 11 297 69 283
4865 -0.16905176868636351 1.3981960737292518 3.755479165769454 79 69 17 0.21063173963202894 99 1351 85 1315 90 2017
5382 -0.019362306362706482 1.733399990428474 3.849298238872187 0 0 0 1.5775981585831098 38 2809 85 2534
4274 -0.386361512115874 1.7342025177479092 3.6088807982550977 58 65 88 0.83722385451171666 30 376 93 229 49 651 97 311 18 253 42 596 98 251 56 1069 99 340 85 438 90 525 14 579 81 306 75 352 51 673 24 248 83 223 45 194 64 253 52 1996
5891 -0.57691836934350238 0.67050769788129416 3.2486837378395532 131 105 26 0.14965689926744108 42 2518 31 2232
11520 -0.30091560052745869 1.9306836512776528 3.7201343094065211 2 3 4 0.26275487113899693 19 1382 25 1064 94 1339
4275 -0.47912953337299585 0.51140100578455883 3.4558595956212814 186 131 39 1.0970002305492752 18 3098 42 2205 49 3260 97 1736 18 877 42 989 38 1909 31 1593 17 1780 32 1848 79 2096 2 2000 62 1189 27 1063
4276 0.18730669181788137 0.7241578718228131 4.1137271862883198 165 138 45 0.60400944178464866 56 803 97 1784 18 930 49 1044 57 1822 93 1727 99 1849 85 1831 17 772 27 496
4869 -0.10249994206345246 1.4267233766294507 3.7388573034745174 2 2 3 0.12406446596979058 99 1381 85 1355 90 1304 14 1473
4277 -0.76067183896954293 1.9509897759204997 3.7487965306415942 76 74 64 0.10507122269541502 57 948 93 853 49 1120 18 1008 97 999 98 971
4278 1.5452968518523875 1.4653905313552376 4.4373512007067539 111 80 67 1.8618230397522715 56 620 42 502 49 1631 97 2158 98 1963 31 759 89 1663 96 1670
7943 -0.4392867564257793 1.7433468375717174 3.4708228663067127 14 18 23 0.25705914423201431 48 1287 2 1125
4280 -0.56682019524796456 0.51567950121535466 3.4501536066148564 194 134 23 0.15751883030410216 97 1737 18 1727 98 2080 49 2601 56 2527 42 2208 17 2955
4873 -0.42227255358374022 1.5628701696787379 3.4691893052935558 3 3 2 1.9726177023071358 99 360 85 1379 7 292
4281 0.029373887487901689 0.8523970286543372 3.9155840776178779 80 64 26 1.4348663000955797 49 381 97 2457 18 1807 57 766 93 692 99 756 85 745 90 772 14 804 17 366 81 1003 62 469 27 484 45 966 64 948 3 2207
5390 -0.18347050962397118 1.894847944230591 3.8074283990820694 21 25 25 0.14093875655521687 49 2426 90 2735 14 2096
4282 -0.32625679684995912 0.99941551096019043 3.7066696859971828 182 156 44 2.3295364357888579 97 91 18 103 98 71 30 42 49 64 57 41 93 38
5899 1.3089888870008171 1.2216818747236453 4.8522995503943394 234 219 182 0.25845725569128941 31 2329 68 2536
4283 1.2577186875624773 1.6047338351681162 4.1762212456300789 111 85 75 0.45751289706685488 57 903 30 1423 93 831 49 456 97 1053 18 1039 42 665 98 1410 38 1369 99 897 85 988
7432 -0.95831083284237162 1.3841046819053733 4.6242619687706474 223 211 173 0.22466534742740379 75 1212 48 1172 79 779 2 764
4284 1.1970725281982082 0.11993436702774932 3.6371486646420488 68 61 21 0.48730161066698013 42 3209 49 3251 18 2606 56 2474 32 1781 75 1636
4877 0.79156847586704537 1.2396054748365841 4.8101928503609717 239 216 171 0.19337093630092106 99 1408 85 1389 90 1382
4285 0.39266385666068782 0.61812395071431647 3.8372792803553413 133 106 27 0.49836594382480903 56 11 17 10
7426 0.63575317238450735 1.7598373644770191 3.9776002791267273 45 29 22 0.93981177715503939 31 453 48 1150
4287 -0.28749072818153704 0.40971716723679469 3.6185417390519135 255 236 93 0.20791645606205553 56 369 49 765 17 413
5388 -0.39805431567708144 1.9127150156715673 3.5778940878242147 97 100 96 0.22106302015455734 85 3259 90 2721 14 3202
4945 0.98728189540918265 0.070393898471580646 3.8892714109760855 0 0 0 2.5293305099192946 57 2007 93 2663
6695 -0.40978138327395996 0.45077542296801543 3.4555944266202792 245 2 0 0.72610951785844291 38 655 32 652 79 589
4289 -1.0052985163554091 1.1699199972312426 3.9574905795915001 0 0 0 2.3083052032236759 18 1175 49 1378
5462 0.34151113357509 0.079839729631762349 4.1497908079923871 0 0 0 0.57705732561945433 99 60 14 67 57 133
4290 1.540985524183236 1.0559291700937565 5.1244652840637777 229 213 178 0.21110177199445745 56 1349 49 2102 17 1125
5971 -0.36431323283642858 0.43252529817586832 3.5833306624078038 255 235 89 0.21143806958454542 56 367 17 412
4292 -0.39635516150848016 1.2184202717865424 3.7244164361631 0 0 0 0.44566636633169265 38 2559 97 2052
4949 -0.19839132638615078 0.49185395346692168 3.4793332081158099 255 233 78 0.1601208876447634 99 1786 85 1760 90 1687 14 871
11594 0.42107799021393183 1.8017703943828878 4.04903507879758 66 75 75 0.88214162110613237 89 3052 25 2638
4293 0.9451730708841054 1.516834061553668 4.4637388525982011 205 190 154 0.28196426132191688 93 3122 49 2978
6692 0.67117675474937555 0.18411330049800043 4.2791183428588946 157 131 47 0.29031466469741718 68 681 32 646 51 566 48 532 79 588
4294 -0.69304538835949503 1.915628992214331 3.7884182268817743 0 0 0 0.056893300632970836 97 3063 98 2917
8023 -0.71054913517358498 1.490748826492228 3.5863191106255639 80 93 121 0.26165175758433457 79 2201 2 2264 60 1933 72 1963
5669 -0.051613203127176183 0.64523820452875691 3.5491078143821708 255 218 59 0.51921441442954719 90 2322 14 2415 12 2082 52 1676 3 1543 81 2290 19 1753
4295 -0.34044163355259666 1.9090816854907904 3.818621274912585 4 5 9 0.68328290684879778 56 2964 49 3049
5460 0.20154231836792982 1.9293873733308504 3.733384790122761 0 0 0 0.65034990733172493 18 32 97 37
5678 0.59851866607412407 1.7129877854546396 4.108421892013804 5 8 11 0.14130970067001578 90 1960 14 2489 89 1955 96 1869 41 2560
4296 -0.74618853078107283 0.4948731163410327 3.7088183064176525 255 237 101 0.36269205442896424 42 3151 49 3236
4953 -0.65392671575374717 0.64967512576542197 3.2354913849998415 138 113 27 0.47945598484274166 99 1800 85 1766 90 2273 14 1866 89 2121 96 2031 41 1992
4298 -0.69476880583525402 1.0652451358993054 3.2638035273430752 0 0 0 1.0753754085352303 57 1871 89 7 96 7 41 8
7721 0.62927458716812212 0.97071216245845071 3.9368580360723811 105 106 128 1.2112424578635683 32 999 79 863 2 945 1 991
4299 0.15173366672125471 0.91541607380317747 3.7881277029422669 166 122 28 1.6306965675409764 93 16 99 6 85 15
7714 0.78338697822127079 1.5216141971006556 4.2235026794302115 3 3 4 0.4090490010687855 48 323 79 818 2 1044
4300 -0.44226825254846863 0.64657166925363729 3.8984137536257442 0 0 0 0.9982231505007757 57 19 98 23
4957 0.86538289713327721 0.35655834692091121 3.9265066736954295 0 0 0 0.68475478044012628 99 630 85 1792 14 921
6691 0.82431564407574864 0.14380794921831716 4.2720364065348164 98 51 3 0.23163110935914535 75 599 32 644 51 560 48 531 79 584
4301 0.90549002585734084 1.5981160194061155 4.0963872740594898 0 0 0 0.54104096468004159 18 27 97 29
7506 -0.88914140269762632 1.0327655491590653 3.8794753563912332 105 82 17 1.4879043292531473 32 2738 48 1779 79 1958 29 806 72 550 1 1824 65 808 33 783 9 735
5677 -0.5527348606347261 2.1553515619667949 3.3888663828790095 122 85 69 1.9170216061256269 90 1971 14 2487 12 2496
4303 0.91237117365619524 1.1508472141178028 3.8153987344361528 0 0 0 0.16511925551251144 30 54 93 60
5686 0.74027631699935448 -0.32831888528362024 4.0732915855356175 53 58 69 0.21347211798615023 90 2659 14 2614
4304 -0.38032216883258169 0.58656392107202526 3.3603542175458112 255 226 63 0.38981502275658342 57 53 93 88 99 67 85 79
5025 0.5532702379083686 0.70948933619882237 4.052861807820733 63 55 53 0.11084627991197023 99 2226 85 2208 90 1786
6711 -0.69402825974987525 1.8286901987370288 3.9546507984102242 64 65 60 0.28473869887499037 31 999 32 774 48 694 79 698 2 697
4305 -0.71324686815331051 0.83694660481887928 3.9096286606874489 0 0 0 1.1639397376474931 93 77 99 70 85 74 90 73
5542 -0.23278016970748605 0.55711939865996252 3.3760226704452241 255 233 79 0.25399418980170746 49 794 85 1768 14 887
4307 0.94252126751662468 0.43103562416406199 3.989808296266947 101 83 21 1.2252076785242816 98 81 99 73 85 75 81 62 51 180 24 63
4308 0.85806126024643947 1.429466668694644 4.153752929772887 5 4 5 1.7066126615649662 49 50 99 84 17 43 62 63 27 59
5029 -0.28663837055386027 0.99923677212602924 3.7372812083681346 255 215 65 0.35126624006670315 99 2253 85 2236 90 1793 14 963
6708 -0.98829891478507137 1.6429127860075179 4.2516070470033522 74 73 62 0.28380876631253382 31 977 32 745 48 666 79 680 2 687
4310 0.64487587081750797 1.5708834300029382 4.2276123285609941 41 47 65 1.9728213165567789 97 147 99 103 90 113 14 124 12 420 52 441 3 310 16 98 58 148 45 224 64 223
8103 0.74624503470226944 -0.32639772618679103 4.1073760880204526 193 203 229 0.25143724633273784 17 1658 62 569 27 504
5685 1.3844768657068114 1.4882766125247628 4.4920366720715093 146 128 97 0.028423421522750097 90 1976 14 2605
4311 0.74363864630891929 -0.15012046974295737 4.1423434541826403 0 0 0 1.6964904296489038 56 105 99 119 85 124 17 180
5540 1.0873411643864603 -0.21206309079106714 4.621440606856277 165 83 6 0.33299759553794472 90 713 14 836 17 804 62 679 27 722 59 726 89 679 52 792 96 590 41 650 19 1129 25 771 94 610 11 598 70 624
5694 -0.41550926788607501 0.61726693067687122 3.2929556266776303 255 231 75 0.19951287812929039 90 2923 14 2723
4312 -0.35145958908621794 0.31523942876883598 3.7097175527423838 0 0 0 1.8685920354034407 93 66 99 121 90 127 3 179
5033 1.1904625667342972 0.61391670345588323 5.8100909371199734 157 109 84 1.0909749563099973 93 2293 85 2282 90 2454 3 1588
4313 -0.22986115033195098 0.33850851531966275 3.7604601545461773 255 235 71 1.6465809703078733 49 601 99 137 85 474 90 402 14 565 81 829 24 135 45 128 45 749 64 121 12 1502 3 1029
5550 0.61901669025489559 0.87090832253068784 5.4016995485443973 107 77 66 1.0520400876960583 85 1211 14 1006 81 1061 24 1163 45 1185 64 1192 12 972 52 711 3 1200 19 1185 94 1441 22 1215
6712 -0.56407283909420236 1.9539283592061856 3.7610127835667293 66 72 69 0.23097794645010195 31 547 32 775 48 601 79 725
4314 -0.27847522119191281 2.0940557424862316 3.4819135969670461 113 74 51 0.71707432817513095 93 157 99 151 85 148 90 213 81 236 24 496 83 293 45 519 64 532
6059 -0.78906849440981153 0.57584108401707279 3.5462564108234891 255 237 83 0.44472911342389987 49 1892 27 1135
7737 1.6129566098886878 1.5312945816332888 4.3842959940894559 107 78 66 0.46181305863497008 32 864 79 1096 2 1024
4315 0.69763929382048295 1.2381878726999969 4.5886390853854779 235 210 166 2.007062534367789 99 152 85 154 90 105 14 169 52 88
7592 -1.3890327160289921 1.4548448802314471 4.5150880954479451 221 210 177 0.6524713507591231 56 577 97 1102 18 1112 42 664 98 997 57 1169 30 1302 38 1273 93 1244 49 1337 31 472 68 553 32 767 48 831 75 1470 51 1682 79 732 2 682 60 945 72 942 29 583
7730 -0.23459006609683741 0.91816185911228865 3.4227909092310309 147 103 18 0.9932064997897081 48 928 79 993 2 938
4316 0.88279757343394138 1.2905949112650419 4.2029021651174654 229 206 164 1.2784068181933055 93 172 99 157
5037 0.39219117594098024 1.2487863608210656 4.0234771552965549 9 8 7 0.3228822386648687 49 2129 99 2408 85 2383
6707 -1.0612594759552714 1.4954536071855735 4.4747474810085937 103 98 79 1.0171857921647476 31 465 32 743 48 611 79 748 2 684 60 504 72 428
4317 1.4799608398033981 1.444533890787749 4.4813946624207572 231 214 174 0.7456508430979023 93 234 99 165 85 172 24 742
7586 1.5745343829257792 1.5683297876680391 4.3124895616828232 34 24 21 0.87231776960806151 56 1501 42 1446 98 1973 31 1913 17 2162 32 1192 48 1078 75 1372 51 1352 79 1317 2 1341
5693 0.59838139498751319 1.7664976253805094 3.9990478000460636 56 40 34 0.73507838095947453 85 3359 14 2714 17 1567 62 881 27 876
4319 -0.061587392121856668 1.8640984715324036 3.2249442249765976 52 59 58 1.3280317871916862 57 216 99 182 85 174
4320 -0.62257889129129518 0.81732892472991314 3.2645378623071815 107 98 35 1.4160497195253734 93 126 99 214 85 139 90 276 14 412 14 1904 81 198 24 142 83 107 45 197 64 311 12 295 52 626
4977 -0.38711480118440222 1.0245963316773528 3.7226918920624201 254 206 62 0.18812095786211885 99 1886 85 1871 90 1791 14 1078
5494 -0.017081483605596789 1.2516594819594333 3.7180398772692094 80 58 8 0.4924366603529331 49 588 90 475 14 357
4322 -0.5183414367794742 1.1798629678846204 3.6211057591947422 211 166 42 1.276555030977123 93 615 99 239 90 398
6003 -0.29322076185226914 1.1659951898571055 3.4710317841903864 106 85 20 0.21404376169601677 49 1787 56 1105 17 1062 62 810 27 910 59 774
4324 0.82310834813389133 0.79995522318339163 4.2701446972802835 115 94 25 0.6749838306163698 30 262 99 242 85 270 81 155 24 169 75 504 83 172 45 149 64 160 12 158 52 286
4325 0.4403583136833889 0.72410784626277058 3.7506596148371707 98 89 28 1.2248270824728904 57 171 99 256 85 285
4326 -0.14066522100490456 0.75881054537182346 4.0145374748833964 5 4 3 1.1070695112988092 49 86 99 258 85 205 90 93
8055 0.28879762314879009 0.92106655674009374 3.9321851911759147 75 54 8 0.57618740920507816 17 25 62 19 27 31
4327 1.3878391703289574 0.35643195542448541 3.8813579954641138 0 0 0 0.23659387521196484 97 683 99 270
5492 0.71888124425484512 1.0033069639789984 5.2450913691486614 236 219 179 0.36531001001540964 90 688 14 351
4328 -0.51144174291924382 0.76356623393676071 3.2596317508424248 106 93 27 1.6507768236673106 49 401 99 273 90 279 14 416 24 323 93 125 45 199 64 195 12 530 52 622 22 695
4329 0.20261588419986451 0.45206798667030479 4.2474423229545346 33 33 40 0.22453999183400195 49 425 99 274 85 295
5502 -0.27295304974622653 0.46203021967616403 3.9202080383272122 255 237 65 1.2016864738261774 49 286 14 429 89 276
4330 1.6952373223165842 0.2115252442341225 3.9831258527471505 255 227 77 0.92453482875027837 42 2476 99 279 85 298 90 139
6011 -0.15231605059345441 1.1309245248337296 3.5978144623533574 239 190 50 1.709075948791493 56 2121 17 1287 27 913
4331 -0.14993021064658593 0.49822555670795332 3.4823766804836014 255 235 76 0.41532794850889715 93 573 99 288 85 306 90 615 14 430 81 944
4989 -0.45041280348518148 0.36598468966222386 3.6925660821020738 193 134 25 0.68580508729293754 99 2056 85 1989 90 2224 14 1826 52 2278 12 2013
7538 0.39033417439218837 0.82219208782479092 4.0049342444682559 112 83 17 0.43967782635338648 32 2577 48 2050 2 2332
5500 1.153315067557938 0.29578098387725416 3.9672661415272037 0 0 0 0.74724217109000191 57 71 81 435
4336 -0.63538121152151994 2.0423851024557305 3.6282696174524278 142 145 139 0.6637197911536652 93 357 99 336 85 360 81 421
4337 0.90861931811808361 1.6422057863118587 4.105624624318466 208 193 156 1.4509424181062183 99 339 85 355 81 674 45 1864
5446 1.1847788182660441 0.63378878354687573 5.7739121032586151 152 105 81 0.63392529002390374 85 658 93 609 90 666 24 674 83 708 12 211 64 922 3 567
4338 -0.80972920525227365 2.0402300571118483 3.5926114808650116 144 147 140 0.87758765279813766 93 360 99 345 85 371 90 405 14 516 17 347 81 576
5955 -0.096237711705140949 0.6478077822147229 3.4443897083948074 44 55 78 0.85722882210061391 56 101 17 110 27 154 62 133
4339 -0.59805520151880676 1.980485639427483 3.7289733489862749 135 137 130 1.0384225859913612 99 348 85 374 93 189 90 199 14 510
4933 -0.7464086196722034 0.93736427482135332 3.7873126606431553 255 233 71 0.87989446669914118 99 2859 85 1692 14 2272
4342 1.1373402828400216 1.4229650114677026 4.5925793321942159 231 215 176 0.22777465974791222 49 200 99 402 85 410
8007 -0.38208057353709879 1.5378349037180525 3.5192139662814963 56 69 98 0.35996938406648898 32 1697 48 2246 2 2098
4343 0.37760365828673514 1.5912100154380158 3.9385692267854022 0 0 0 3.2435499913752501 93 235 98 488
5444 -0.1906615211133719 0.59735612219730383 3.9884212138606845 255 241 65 0.63353323986455701 99 632 90 273 14 414 81 205 45 346 64 362
4344 1.2909813975464026 1.3776461020234509 4.6587323122054309 233 218 180 0.54235707543494027 49 311 99 408 85 412 17 284 62 251 27 328
4937 0.32961672144115128 1.4515987658734144 3.9501908269834929 79 63 16 0.60580575112022228 99 2487 85 1704 90 2116
5454 1.8130874000608483 1.179376963046153 5.0954208279520552 219 205 168 1.5554216994158498 90 25 14 23 45 23 64 25
4346 0.89334853747514664 1.3807922349922532 4.6457839220917174 218 201 163 0.29760040803871984 49 192 99 431 85 440 17 256
4347 0.14752208166788147 1.5297686433203594 3.6558199364713233 84 70 16 0.74331026996580241 30 213 99 440 85 356
7496 0.46092328253234316 0.87049719726785979 3.9090228676491927 87 56 8 1.1131474593358577 51 1725 48 1701 79 1556 32 2580
4348 0.53074514800096362 1.3738223993739898 3.9906249030309597 53 57 75 0.73600631785441217 30 224 99 455 85 158 90 438
4941 0.94281205906990584 -0.082445139089221714 3.7628441890087529 64 76 105 1.4762937472082645 99 1737 85 1727 90 1650 14 826 64 231 45 245
4349 1.1897039306075143 1.0876210896463239 5.1478778333304271 234 218 180 0.12737442318451053 49 555 99 471
7490 0.72484113490402791 0.45078388898383093 3.8317045570983184 93 63 8 0.16043591377718402 32 1840 48 1645
12111 0.89136234903567158 -0.067709087434589726 4.2181276739601605 255 244 76 0.84396215899586269 94 290 22 140 70 112
4350 1.2695082159680218 1.0644130016166879 5.1823370587532258 237 221 183 0.20218839715779774 49 466 99 473
4353 0.75883061094829485 1.1097950533977619 4.5000032872599007 115 87 20 0.47943447297780423 93 721 99 494 85 806 90 1113
4784 -0.48915215453364702 1.1250668589039239 3.4598124030769473 93 68 14 0.22475273566658396 99 770 85 760 90 780
4354 1.5073190301965222 0.99734893818122983 5.3070575157462452 236 221 182 0.63162696630978421 49 526 99 507 85 483
7357 -0.83825188333031397 1.6279723778098787 4.2619882527788144 111 108 94 0.44491800265511205 32 238 48 363 79 188 2 214
5303 0.38687187081364388 0.91966215451710287 4.0654703407949642 82 61 13 0.46336437510902639 90 1158 81 1981
4357 1.8403281807182734 1.2195246419520511 5.0257751344674562 236 219 182 0.73385894831689924 57 475 93 440 99 534 85 522
4788 1.0135609071327853 0.89860357318714801 4.0920354168092485 54 29 17 0.39429364496270081 99 1221 85 779
4358 1.2213356096126768 1.5641953824646377 4.2898020681799123 219 204 169 0.11185433243302262 93 809 99 546 85 585
5297 1.0054030501882127 0.81224785500923702 5.5350145200185992 226 212 177 0.73656329865469106 49 874 90 1122 14 1341 52 1100 12 1194 3 1616 19 770 94 696 22 662 70 458
4359 0.84876177906965511 1.6715513412397367 4.2016668535759383 192 180 149 0.51370931043671819 93 833 99 553 85 893 90 555
7862 0.07714546254537781 0.96960686667152474 3.7434006480532802 79 87 108 1.089366101435733 32 1933 79 2432 2 2354
4360 -0.29083133654013948 0.46300335116298319 3.5397721448725648 255 233 78 0.48376080544153144 49 287 99 584 85 601
7355 -1.2670325772639466 1.4050553273995208 4.5939309423444534 50 33 23 0.56999727323149374 51 603 75 348 48 356 79 353 2 221 29 352
4792 -0.94852511121513605 1.846333045332788 3.9429712098587402 76 79 72 0.22399974377788376 99 1022 85 840
4362 -0.59343436708252673 0.55568645252966942 3.3796255546700005 255 233 76 1.1702177424691131 49 288 99 618 90 611 14 751
4363 1.1614830886865015 0.22183955234068148 3.7483889397347814 116 102 42 0.13945891293608542 93 138 99 621
5818 -0.29716921583066658 1.1215856425983102 3.6015106146974349 0 0 0 2.0584042002695022 42 80 56 72
4364 0.61321694726511444 0.70863320117534256 3.7607319033851434 142 122 55 1.5947610406918742 57 1811 85 740 90 771 45 608 64 799
5311 1.0363361722572624 0.88243075034347818 5.4502095140153974 120 107 82 0.21558309254263355 49 1363 85 1253 90 1263 14 1321 81 2131
4365 0.80134147019017132 0.63663037835397018 4.2266639741283329 122 84 14 0.88745784342537259 93 683 99 645 85 1848
4796 -0.67619171899910502 2.0347738221860765 3.6228520394275003 81 81 73 0.077425193609690898 99 884 85 866
4366 0.68093984848768174 0.78112585556460079 4.010956258841758 109 90 24 1.0046153784160243 57 641 99 655 85 644
5305 0.6608175451197863 0.83270978723655875 5.4340066247206398 108 77 64 0.82320472470300565 85 2301 90 1193 14 1358 81 2048 45 1517
11966 -0.025842196019337793 2.8481446735359892 6.5516790571020236 225 210 173 0.16824560152665757 19 2667 94 3130
4367 0.9036251615148746 0.7959335728514666 4.4020534708487418 0 0 0 1.513368529621357 93 704 99 660 90 492 85 269
4736 0.92431467119609256 1.4290639988279408 4.6350400837443368 219 202 165 0.014408404222406006 99 414 85 422
4370 0.86237936146824268 0.90143885976418237 4.3749070515220145 131 135 155 0.57340985106635423 93 717 99 671 85 254 90 670
7309 0.82168245911029658 -0.14879571539048864 4.2133605668728809 122 91 23 0.93140882233775901 31 619 32 510 51 427 97 801 98 718 75 579 48 441
4371 0.17355747193504892 1.1039216135149608 3.7308002193227492 125 140 171 1.1355615908829673 56 478 99 673 90 664 14 551 17 490 68 486 75 795 51 716 48 572 32 556 27 191 45 644 64 662 12 580 52 676 3 506 59 368 89 532 96 488 41 514 19 659 25 445 94 457 11 425 22 553 69 443
5762 1.1396350884661777 1.5307107874596719 4.4239108765978212 221 206 171 0.53881046951808464 56 246 18 282 42 486 97 346 98 471 57 432 30 532 38 437 49 230 14 231 99 359 85 372 17 354 62 305 27 220 59 208
5255 -0.65781845557536189 1.3123702684611831 3.4548950320234759 106 113 137 1.1319579122074706 24 299 83 263 81 355 96 148 45 574 64 603
4373 0.10805572151511071 1.2052156905318112 3.8763290108770496 9 4 1 1.9198951980486467 49 2104 99 685 85 673 90 474 14 557
4740 1.0093261211743791 1.4052414016165082 4.6577334823178029 227 210 171 0.053723362069798317 99 413 85 428
4374 0.31257207443048923 1.1259667675746836 4.2767461049048174 54 53 58 0.14010076853766643 93 536 99 686 85 679
5249 -0.40815016768029588 1.4923543162007331 3.5805854149993701 11 10 5 1.6868958130327369 85 210 90 184 24 403 89 67 96 78 41 81
4375 0.81995549300168891 -0.30964906683449644 4.0613739297531186 0 0 0 1.7459068713400048 85 1723 90 311 99 698 45 1464
7814 0.77785987820224245 -0.023761277187864867 4.2940076912426113 150 124 46 0.21601405942329474 32 2428 79 1786 2 1733
4744 1.4892240087209414 0.88229287311153781 5.4611838202000307 236 221 184 0.0094377151468692452 93 751 85 461
4379 -0.27136273407909262 0.65328803874423125 3.4948642185101133 27 20 8 2.4967925775725859 93 1703 99 736 85 722
5770 1.4210481617997015 1.183238063063998 4.9532208293670736 231 216 180 0.93875684245952007 99 1453 85 1706 90 1445 14 1109 56 509 97 1178 18 486 42 865 98 415 57 455 30 1260 38 1050 93 1310 57 1309 49 595 99 1089 90 1006
4380 -0.49990464379153376 0.64367509487024976 3.8212615852902694 28 19 8 0.23745212962360673 97 3148 99 738
5263 0.76663033546728554 1.5483938607602303 4.2359094794240564 1 2 2 0.30532831713532455 85 403 90 388 14 613
4381 1.3790428377788897 0.34503746987091061 3.9015075328983597 118 74 13 1.2748972313925246 38 1566 99 740 81 818 83 751
4748 -0.34452407632926907 0.64179034183213146 3.6968455954747359 0 0 0 0.70469943919083389 99 275 85 488
4382 0.72884279785288109 0.68689153657481727 4.2240917684074111 96 59 5 0.31490100353506578 93 594 99 758 85 748 90 782
5257 -0.74287901596119454 0.87694271075532015 3.7390212612445239 27 25 30 0.64807467720906542 85 732 90 264 14 789
4384 -0.4479904140176898 1.0850857794664863 3.4609267075121957 156 127 35 1.7928254289533025 57 791 99 763 85 274 90 648 75 510
8140 2.0270105537176564 1.4144300711794733 4.5019773789400439 36 22 20 0.73782936499318597 17 1584 49 3514 27 1449
4386 0.11934154085177505 1.9077861450116089 3.5737439488379339 34 24 22 0.7878197057534928 93 1003 85 809 99 795
7261 -0.63216177505257731 1.3607378648397721 3.5897899043145451 96 60 7 1.4320709287081745 75 1851 51 2217 48 311 79 537
7117 1.696228625382846 1.261563837601726 4.8530107285333441 231 216 178 1.4764504500466622 31 583 51 1058
4387 0.13102332315650328 1.9663763730244159 3.6274196278549313 73 52 41 0.17919352069438488 93 776 99 813 85 843 90 952
7110 0.41475724713879697 1.4178255410318508 3.8265534310723979 7 6 7 1.5680295171066199 32 1189 51 1030 13 884
4388 1.3336900257458666 1.7382711760805536 4.2044473915148908 0 0 0 2.9963686252569151 49 1017 99 819
5207 1.3217789414338097 1.4270280202844654 4.5364408341517111 230 215 178 0.06632208643752685 99 927 85 928
6087 1.5393528977292017 1.4740041218025042 4.4869382631180557 124 114 95 0.26199853329038819 56 2214 17 2205 27 1385
4389 -0.63818997489529428 2.1858716336908142 3.3075898036719082 136 96 76 1.2791995001840015 49 2460 90 882 14 646 81 683 24 783 45 1306 12 1207 52 1304 89 505 96 471 41 381 19 680 3 326 94 574 22 856
4390 1.2835798622030419 1.5217149995388304 4.3207826884624554 225 210 172 1.7193073624858888 99 864 85 864 90 891 27 837
5201 0.94468363805221178 1.4089468019335567 4.099971316728527 108 96 72 1.7810165267175091 49 1575 85 1497 99 1504 14 2289 57 3088
4391 1.0045817882098202 0.35269793738454541 4.0429441887696749 77 61 42 1.0547994879086255 99 866 45 336 83 761
7766 0.63686293770915292 1.0372773842888077 3.9347528268679874 38 46 64 0.16755212311402654 48 1310 79 1362 2 2364
4392 0.8748779373306238 1.6390187899054467 4.297638344917484 90 86 70 1.1811325008689317 49 1130 99 868 85 869 14 1033 90 868 16 732
7259 -0.5323201897522466 1.2873768941474175 3.4559388174025067 24 26 35 0.092708796764724419 31 2912 51 2195 48 2166
4393 1.9197352686091398 1.3944843472238522 4.6415470282933216 227 213 175 0.40759584548176225 57 952 99 872 85 891 93 1464
4396 -0.50609605392414281 1.8414355869674128 3.3930211588210244 72 70 60 1.9738811826738452 93 827 99 940 85 978
5215 1.5283539418958272 1.3911975947896131 4.5812745364753225 237 217 176 0.19749331558881822 99 1581 85 1568
4700 0.670092393373525 1.1082357690266018 4.3674089190232017 111 88 20 0.30786067363399899 99 485 85 244 90 693 49 578 14 568 81 335 12 232 52 268 3 195
6095 0.19701126435194177 1.8918461460772533 4.0015111830088532 60 69 69 0.74784019248874833 56 2959 17 2245
6088 1.4609538977180505 1.4869723024157813 4.437333931786883 128 113 91 0.55479105613053137 56 2810 17 2208 27 1392 59 1296
4398 0.94658492650469139 1.4848531403562863 4.2290768142514175 212 194 156 0.85479301198084323 49 648 99 953 85 956
5209 1.1931873722613238 1.4100258701036947 4.6027612584813209 227 212 177 0.017194883536331536 99 965 85 965
4768 0.0073684902437561699 0.8022805685325215 3.6744979075161539 255 217 58 1.1138917550159673 99 1842 85 630 90 641 14 141 81 378 45 347 64 363 52 140 12 144 3 131 19 146
7133 -1.2159690848771392 1.5845698939077391 4.2896200985486361 192 183 154 0.30092021704256611 75 1492 51 1227
4403 1.0362241677415949 1.3341289824660758 8.6206389509439667 232 218 182 1.9045191844420675 49 1358 99 1031
5794 0.76698455255559761 1.3140104530847023 4.6929465380726851 138 124 100 1.0093116498819437 49 1189 90 1057 99 1096 85 1087 14 1174 81 300 24 454 45 324 64 459 12 383 3 582
4404 0.94785489372665666 1.372352372755721 4.6751595617482469 221 204 168 0.1555984186857293 49 604 99 1041 85 1042
4405 0.86836073540491876 1.3951790072475869 4.6371873034434694 215 199 162 0.12821772255160802 49 606 99 1042 85 1037
6096 0.0057032905324117568 1.8829485823217347 3.8295987015532704 3 3 7 0.12079507002040413 49 1725 17 2247 62 1981 56 1627 27 1748 59 1988
4406 1.6532828114616518 1.1923778725788039 4.9717765427461824 118 110 89 0.13106992605948845 49 1169 99 1056 85 1040
5281 -0.55947880160240882 0.86381358497149341 3.3128196449926768 114 63 9 0.87188761500027756 49 986 90 750 14 917 17 1894 56 1230 12 1536 89 1770
7121 1.9059789382316847 1.3658478593355889 4.6843153090181877 230 213 177 0.079760519424473014 75 752 51 1075
4407 1.8093695619525458 1.1467048451101556 5.0457961511718059 128 117 92 0.044042362349305926 49 1177 99 1064 85 1047
7846 -0.61384721523520014 0.76534459397373333 3.2341738923413987 115 105 34 0.97873025626998111 32 2542 79 2248 2 2236 72 1737
7130 -0.71111444381952549 1.6513199694713341 4.1833965584055584 92 91 80 0.034002926175497938 75 1262 51 1222
4408 1.5338263174003641 1.1729022516995271 4.9954102502396509 117 108 87 0.24562849625366945 49 1186 99 1079 85 1457 14 1134 17 1007 81 1250 24 1049
7339 0.91186424881769612 -0.23034589307123518 3.8467399233436588 153 136 52 1.5879897858106626 51 163 79 36 2 34 60 71 72 71
8155 0.40016172967226687 0.51924213753279536 4.2944737961311077 144 112 33 0.63891486622378957 17 1793 62 1628 27 1649
4409 1.1039351916092965 1.21390385911724 4.8620674700142938 115 103 79 0.50714285883504684 49 1210 99 1103 85 1092 90 1051 14 1130 81 1182 24 1027 45 691 64 691 12 876 52 1044 96 920 41 1522
4776 0.81384418649266643 -0.21248138009144701 3.9479707804449831 112 122 153 0.52929668128979934 49 451 99 702 85 697
4411 0.81278500172531087 1.0209163652858153 4.6369744365126904 141 147 168 0.68005155591090993 49 2068 99 1152
5802 1.9435211787480218 1.2562308468090755 4.8581542616518183 231 217 182 0.090377810299088757 85 3242 14 1737
4412 0.15230197205385385 1.1704492737709336 3.7934062331156251 82 67 16 1.617863222111894 30 840 49 3490 99 1160 83 348
5295 0.562500238196456 1.3474229569762908 3.9773332113674593 51 54 70 1.775307049927787 93 1019 90 1087 71 1119
6111 -0.32769529245429574 0.91674485753726942 3.5826346086591885 255 212 59 2.7251596864096719 56 2949 62 1269
4413 1.2743642161511246 0.74625812059831453 5.6076204071981248 229 216 180 1.1092527958432088 93 1116 99 1164 85 791 24 1130
4780 0.78321804288728847 0.3893713583873244 3.6682981646028496 93 105 136 0.41270613889376517 49 962 85 720 14 916 81 956
4414 1.5977586067691076 0.93700623962920238 5.3733412192236951 130 117 90 0.095930288315079701 49 1283 99 1174 85 724
5289 1.6112463983238114 1.1505465423890919 5.033438765209814 123 113 91 0.12262412155695585 49 1190 90 984 14 1141 81 1261
4848 0.80348823531035662 0.87234184064011844 4.3800249959500475 13 13 15 1.3207551514481197 99 1200 85 1180 90 1167 81 782 24 889 83 705 45 476 64 392 12 761 52 880 3 834
4418 0.72273194351905878 0.78248629868390285 5.4455947696142077 152 104 81 0.3533731581581438 49 990 99 1206 85 1191 90 1839 14 1366 81 2035
7421 -0.85434709680660781 1.3058346406540986 3.9821227555266598 82 65 11 0.68733843799187555 32 1675 51 2263 48 1092 79 1153 60 1287 2 2105 72 523 1 800 65 1532 53 1735
4420 0.83267191784018713 0.88602022551605109 4.3749805879859673 99 104 120 0.23641289695661541 93 1784 99 1210 85 1188 90 1133
5367 0.9023410923649009 0.78337891433171924 5.5337203391033478 54 33 22 0.38147854169523487 85 2949 99 2984 90 2501 14 2914 81 2658 64 1991 12 2401 52 2895 3 2304
4852 1.3767714261960606 0.66117706452460612 5.8334626128922498 242 219 181 0.47539881935119438 49 992 85 1208 14 1340 81 1077
4422 1.3061865785231224 0.68269833127356527 5.7704395609851034 217 201 164 0.31674040277459414 93 2316 99 1223 85 2311
5361 -0.046436993361621388 0.67974801405538288 3.5005656512249246 121 107 51 0.56086339058080004 49 2656 90 2330 14 2423 81 2298 45 1534 24 1798 64 1556 12 2090 52 1795 3 1545 89 3264 96 2168 41 2731 19 2593
4423 1.2296690102734749 0.7064244981924066 5.7269886268288781 216 203 165 0.25900937930650314 93 2323 99 1225 85 1209 90 1211
7926 0.73018288623733973 -0.2371596486640844 4.1537567371513635 117 129 164 1.1462873607267527 48 434 2 542 60 391 72 390 29 384 33 165 9 169
4856 -0.64553847451375057 1.4049014248214184 3.5578503116249736 74 71 82 0.3887597674987151 99 1275 85 1235
11461 1.4931616776935228 0.88825151513541745 5.4385368369947731 237 220 181 0.6076792962264751 41 244 25 236 96 295 94 225 22 284 70 218 11 220
4426 -0.18076324272691824 1.2003970214459387 3.4997384786481889 102 88 25 1.0470244680112146 57 2828 99 1228 85 2921 90 1830
4427 0.84077493109713541 0.86225294538338781 5.4627314440502381 211 196 161 0.7358765983594916 49 1383 99 1236 85 1218 90 1217 14 1343 81 2680 24 422
5882 -0.4729786941620483 1.5752641880360281 3.5817982020255803 8 8 7 0.23364328217656105 42 2985 31 2064 32 1270
4428 0.87844690553137084 0.90401539470196091 5.4033676602288674 230 217 180 0.22037504820190873 49 1366 99 1255 85 1241 90 1242 14 1330
5375 -0.49005567003526201 1.5220838558980876 3.5986905089047014 80 74 20 0.70990456860183748 99 3072 90 2622 81 2605 12 2181
4860 0.58617424333086365 1.0895866693846075 4.4077797066771405 127 95 49 0.6894624519742536 99 3020 85 1256 90 2002 81 2892
4430 1.5266485881163507 0.86198923636319247 5.3210158673265653 130 117 91 2.7175700606185309 57 2243 99 1293 85 2361
5369 1.4548442412708098 1.0415890709799653 5.1109503719917484 234 217 181 0.0097485416501148642 90 2524 14 2578
4432 1.5272245102365383 0.87473594770089191 5.4748069769529417 127 116 91 0.070009122000558963 85 2382 90 1628
4641 1.2382911458233676 1.5132981775513321 4.443230056791406 135 125 103 0.86485066369488139 93 218 99 166 30 446 85 173 38 434 81 326
4433 0.42339341183547391 1.2350700668994674 4.0275518612337819 12 9 9 0.21963164610255581 49 2142 99 1335 85 2381
5158 0.6527707986632113 1.1168821250179912 4.329187358670934 75 54 8 0.74008598294542349 99 2373 85 3274
4800 -0.5373656951265583 1.9706806813326367 3.6935380997728271 127 130 126 0.0018532740818645805 99 873 85 882
4434 0.50032052960705842 1.2290072453944458 4.0099944937480227 11 6 6 0.28821813602221635 49 1434 99 1340 85 1317 14 1490
5667 1.0001065643325873 0.26132082007379231 3.8884202356272706 99 78 15 1.1269033281403911 90 2312 14 2409 83 1565
4435 0.48961735818116908 1.2502001274527206 3.8780419527181982 6 5 6 1.6545421967122713 93 1234 99 1355 85 1330 17 2077 7 1106
5826 -1.067113415493703 1.1674599965411956 4.1687633538685134 0 0 0 1.3889914456474461 42 282 31 205
4436 0.38675383379712525 1.2838533788527913 3.9807582162874779 8 4 5 0.21649304590856286 49 1447 99 1369 85 1342
5319 0.65277614943328865 1.1315922020202933 4.3716403594116091 110 87 20 0.41134485838145096 49 3487 90 1626
4645 0.069071770558922815 0.93132319278879605 3.77922714694343 252 210 52 0.9487395314955468 56 571 49 851 99 1885 57 1865 93 1757 85 642 90 241 14 385 81 457 45 517 64 325 12 266 52 189 3 225
4437 0.30685365098103806 1.3186637643360981 3.949731278768692 7 5 6 0.2697935783285263 49 1452 99 1377 85 1356
4804 0.67422379239763297 1.1438708235282451 4.3981116028941836 54 27 2 0.47183457781306443 99 1143 85 895 90 699 14 572 49 583 81 497 45 388 64 415 12 615 52 703 3 543 22 2099
4438 1.6423233936682522 0.98867157623196866 5.2417102082787714 239 221 180 0.5929516233538441 49 1254 99 1387 85 1381 14 1168
7719 0.46255150092996078 0.75956422076443453 3.7584140944583186 63 60 47 0.49445039473657654 48 551 79 860 2 1235 60 1764 72 1792 29 1737
5313 1.5958671651760468 0.91271838054685295 5.3949116639312367 232 218 182 0.11236452359453873 85 1349 90 1373 14 1211
4439 0.10863724762876457 1.3899483434082092 3.8610589496971763 9 8 6 1.3827381233401779 49 1471 99 1391 85 3031
7878 1.3232051650976837 1.5909480274895886 4.2089328993169106 46 27 19 0.23464651426076799 32 2077 79 2543 2 2020
5156 0.55187147006293646 1.6751820974583747 4.4736195607365232 2 4 8 0.98239814386031588 99 3302 85 3262 17 2692
4440 1.4072146464730413 1.0574363539830967 5.1319540092134437 239 220 179 0.46689624899148258 49 1246 99 1394 85 1384 14 1181 90 1181
7371 -0.068251168415330452 0.69282385188802198 3.4496920907898647 126 138 166 0.91679902560216775 32 299 48 464 60 407 72 322
4649 -0.31179347569367671 0.57906397162763268 3.3405912948934144 255 237 90 0.21704153717810393 56 459 49 796 99 1801 57 1777 93 1691 85 1769 90 1696 14 884
4441 1.2511161191454474 1.1023590860491774 5.0567508133742392 240 220 180 0.53672342210158952 49 1242 99 1396 85 1386 14 1188
5166 1.8975814028763247 1.392795646625643 4.6358501109991224 152 133 100 0.13351476558099606 93 2513 99 3328 85 3315 14 2609
4808 1.8286093154723779 1.3333788970435052 4.7009369621281776 233 216 182 0.047179998977320559 99 859 85 905
4443 0.86515557967442036 1.2799404534187744 4.7579831146538876 120 95 63 0.51990748791674701 49 2134 99 1440 85 1426 90 1409 14 1548 81 1161 24 1361 45 1258 64 1264 12 1290 52 1454 3 1674
7208 0.91897444766644709 1.3638821634861995 4.0779879020516256 236 218 179 1.1963730837044964 32 1149 51 1815 2 2338 79 1461
5834 -1.1821454686394188 1.4465444117291721 4.5196911569595235 223 209 175 1.0506148966300024 97 513 75 701 31 309 32 379 51 624 48 730 2 220
4444 1.4989902558759107 1.1704503346533446 4.9865217523946823 220 203 163 0.28715421971491534 93 1311 99 1455 85 1455 90 997 14 1121
5327 0.045124546544525704 0.72334122643709087 3.8899702939848146 61 36 6 1.0156598249447533 18 3227 57 2659 90 1746 64 803
4653 0.12810757728778596 0.79026947500727662 4.0103384653729579 194 161 52 1.7294763313419761 56 545 18 944 42 1046 98 1655 49 827 99 2872 57 2141 30 2465 38 2868 14 803 90 770 17 373 62 332 27 691 59 202 89 311 96 312 41 369
4445 0.93925531627278169 1.3581504360143966 4.1885291833054152 216 194 151 1.8052060035835034 93 1350 99 1471 85 1152
7202 -0.35172663901100082 1.2578777457319477 3.6095471960998027 86 73 69 0.38560714498369791 31 1949 75 2288 51 1775
4812 1.1738016171158328 1.4934919381901413 4.3915426367336829 107 102 85 0.3308011216770162 99 1059 85 913 24 726
4449 1.1524629520566836 1.472250288896322 6.5447716924313983 229 212 175 1.9566603533334206 49 2109 99 1564
4752 1.6204429857251015 1.2382145249408898 4.6082086099597639 232 217 179 0.65839472178542024 99 1030 85 515
4451 0.99400221113642728 1.4741790455229684 4.0139501043745041 207 190 153 0.070341063848881585 49 1116 85 1528
5778 2.0135995481304008 1.4059258779518935 4.5433846027083096 103 72 61 1.3257752254969559 56 617 49 1137 14 1777 99 2951 85 1915 90 2828 62 302 27 227 59 422
4452 0.88735953693153991 1.5538622503303703 4.1722344605446109 204 188 149 0.57847090954478608 56 2262 99 1590 85 1566
4453 0.89188084048434657 1.5783211362600083 4.1784321727310703 85 77 60 1.4062723998055904 56 1011 99 1605 85 1585 17 1485
4756 -0.46378271839075419 1.8484955692858749 3.5168863725743695 123 124 116 0.98918642886629682 99 388 85 526 14 1570 16 323
4454 0.72865062093513788 1.6362429210591538 4.2054039934900524 2 3 6 0.55291754606516952 49 1124 99 1617 85 1592 90 1547 14 1702 17 989 27 821
4455 0.82191296795098279 1.6291377058909262 4.2140193503100054 195 181 145 0.4805646991593841 49 2391 93 1520 99 1623 85 1608 90 846 14 2493
4456 1.0919220289316909 1.5723877105256214 4.3640483946313013 224 206 169 0.11181446224760895 93 2422 99 1627 85 1623
7323 0.90780485522416599 0.4983214140029204 3.8335109306427899 0 0 0 0.0085922071850145672 32 84 48 65
4760 -0.68522786598138752 2.1449484939426742 3.4716431893367128 99 98 87 1.2744124480071746 99 574 85 561 81 1284 14 1655
4458 0.65761937784980096 1.6943439823697759 4.1352855342655008 4 5 8 0.22637679337853539 49 1660 99 1642 85 1891 17 2207 62 1907 27 1683 59 2058 56 1534
4459 0.62965793380293789 1.7029748536676681 4.1214356801609675 8 9 12 0.24198211856275301 49 1663 56 1542 99 1644 85 1634 17 2212 62 1945 27 1685 59 1929
5786 1.5326982472934421 1.547504495631858 4.3220820471474619 42 29 25 1.3676267782659599 56 2269 98 2712 49 2442 85 2960 14 2900 85 3099 90 2825 17 1583 62 2538 27 1472 12 1927 59 2526 89 1673 96 1678 41 1649 25 1081
4460 0.59988191690402104 1.712558191686383 4.109669577769016 5 7 10 0.29417521776840738 49 1667 99 1647 85 1893 62 1665 17 2211 27 1686 59 1932
5279 1.299576644464594 0.88747481870757416 5.4483078713611652 234 218 180 0.25187437601670465 49 358 90 704 14 322
4764 1.4592785227851319 -0.11823705924026631 4.511616200943612 255 248 81 0.14816522980314037 99 612 85 597 90 614
5273 0.76164499666554997 0.79304335038080387 5.4677959699773826 144 95 69 0.41750667072358344 85 846 99 670 90 667 14 372 81 753 12 621 3 1197
4465 0.11871467253850261 1.8531848757421512 3.8886977875155369 5 6 7 0.20097197942258038 49 1718 99 1668 85 1651
4832 1.4981352213954444 1.2120976898916926 4.9186104726320368 230 217 181 0.30593899040991668 49 598 99 1066 85 1053 90 967 14 598
4466 0.086354163940469228 1.8611737841943139 3.8717269288457214 5 7 10 0.068698095292967942 49 1719 99 1671 85 1650
7405 -0.30265926496292167 1.4032743623185044 3.6604672196844459 2 2 2 0.89869602994764719 32 2092 48 777 79 1119 2 1388
5858 1.6170850271017239 1.1506303329652208 5.036356600562037 116 111 91 0.47383589924054631 98 1284 31 1199 18 1198
4468 -0.13264428926504862 1.9616835341385366 3.5965935320143774 58 42 36 1.1233010351735717 57 831 99 1686 85 2440 71 1586
5351 0.75536053182746787 -0.55729189828478731 4.3274499697745403 0 0 0 1.0374095910266159 49 852 90 2163 56 691 17 658 68 652 62 378 27 388
4469 0.6778808796201361 1.775093845243864 3.3159262182970046 42 31 28 0.019715317790765064 99 1690 24 1024
4836 -0.41179910177774381 1.660557295897743 3.5475370938912389 45 46 58 1.7459962495695236 99 2500 85 1088 14 3032 7 815 16 1245 90 1371 58 2322 20 1412
5345 0.75404058090439008 1.2398365043730797 4.0415664844554717 2 2 3 0.14597844209650077 85 2416 90 2087 14 3049
4472 -0.40108347368847641 1.0005965279145692 3.7622240481029601 152 107 22 0.065228091515870112 93 1758 99 1709 85 2232
7403 1.4647556675553026 1.4349963653424676 4.5716306869640224 232 215 175 0.53288586309085317 32 872 48 769 79 829
4473 1.159984926721517 0.83675396014729353 5.5114127306073915 222 205 165 0.2926099402011148 93 2350 99 1715 85 1245 14 1320
4840 -0.9206580617156499 1.8879605060953495 3.8426481987270953 81 75 64 0.66734669149275883 99 981 85 1148 90 1398 14 1506 83 1124
4475 1.0040451410515119 -0.053945895303318496 3.7101281308253307 61 63 69 0.30121967824825807 93 1637 99 1741 85 1730
5866 0.87230900195457406 0.017388647141905827 3.7371589995531402 138 150 179 0.35181306047542382 42 3213 31 1525 32 1436 48 1299
4476 1.1957985675342557 -0.017157803457197064 3.662314240255339 121 100 23 0.2953662412348157 93 1646 99 1748 90 1654 85 1735
5359 -0.19932575715896803 0.54531171972561143 3.4379937883563256 182 125 19 0.29095309311010453 99 2774 90 2290 14 2909 89 1962 41 2025 25 3114
4477 1.4424863830551771 -0.13495792620473646 4.5386861375218333 255 244 83 0.31246591842759752 49 884 99 1761 17 690
4844 -0.43037819828953955 1.1285996489067809 3.7518285982432986 156 123 48 0.23392927478166259 99 1910 85 1167 90 1810
4478 1.0928904298928608 0.12661379986998095 3.8037025005992082 98 75 19 0.69783866549732976 49 2595 99 1764 85 2051
5353 1.2952031324550242 -0.061060857138568306 3.5469282629032168 105 92 27 0.38672091178259888 99 2687 90 2196 81 598
4480 -0.41751647956570603 0.44879556890174588 3.4829365112250525 249 3 0 0.31974102707275648 93 1676 99 1770
4625 0.092944352664644028 1.6342183495513147 3.9345665114676072 90 80 22 0.57316388565309051 99 3230 75 2485 51 1409
4481 1.5711794450038039 -0.0043231703392770486 4.3533922522407424 255 245 77 1.0366168333167411 49 905 99 1778 85 1757 90 627 99 616 14 289 14 635 17 721 56 877 62 607 27 632 59 576
5142 -0.46287352125541292 1.7515663206542402 3.5997992405650119 3 2 3 1.5007102187863559 99 2537 85 3185 90 3202 81 2879 85 3196 24 1120 83 1896 14 3058 45 1944 64 1532 12 2209 7 353 30 868 71 285 92 188
4482 1.6554347034600498 0.070697866247034225 4.2266840304806657 255 232 78 0.30719806831442981 57 1703 99 1798 85 1777
5651 0.36034389452818011 1.6391064791116552 4.2238020662306051 49 42 34 0.38158043133669606 90 2720 93 2525 14 2214 57 3036
